# .PCD v.7 - Point Cloud Data file format
VERSION .7
FIELDS x y z
SIZE 4 4 4
TYPE F F F
COUNT 1 1 1
WIDTH 1678
HEIGHT 1
VIEWPOINT 0 0 0 1 0 0 0
POINTS 1678
DATA ascii
2.530749 0.7597713 0.9740686
3.647798 1.30333 0.1220242
4.265016 0.5961351 1.115809
2.461684 1.949324 -0.8649548
2.68504 0.4672855 1.42909
2.13417 1.86302 -0.6295992
2.056953 2.306384 -1.35792
3.474628 0.8062996 0.8527573
3.998798 0.9758422 -2.839827
1.894499 0.8839234 0.1319891
1.878831 2.053233 -1.004946
2.099911 2.092138 -1.025017
3.791944 2.656625 -1.854909
2.107419 2.131897 -1.060025
2.953149 0.7259375 1.006761
2.996315 0.6947259 1.06271
2.761082 0.9240171 0.5570926
2.933931 0.8934492 0.7313525
3.337202 1.219897 0.2429995
2.551913 1.454807 -0.0390499
2.920121 1.039325 0.5759796
3.009958 0.9399236 0.7422467
3.284155 1.255592 0.1793325
2.187601 1.865456 -0.7421547
2.220758 1.923948 -0.7655814
2.452657 1.547585 -0.3313317
2.922166 1.093355 0.4831992
2.033636 2.004847 -0.9217094
2.089793 2.383756 -1.407755
2.501374 1.759371 -0.5929751
3.494575 0.2892705 1.496975
2.171448 1.930228 -0.831049
2.300384 2.112572 -1.056377
3.121487 1.133961 0.4438129
3.152924 1.171712 0.313509
3.51556 0.6897269 1.040186
3.433166 0.7787704 0.973599
2.858084 1.290546 0.07567623
2.507879 1.844154 -0.6956068
3.062971 1.511641 -0.1113543
3.551934 0.8670668 0.7699764
3.483042 0.9728346 0.5301473
3.438211 0.9411308 0.5432643
2.642152 1.976951 -0.9074305
2.094375 2.37819 -1.402527
3.569 0.9733235 0.584381
3.503308 0.9785555 0.5579804
3.472291 1.187697 0.12929
3.700727 1.030346 0.5345573
2.871734 2.108034 -1.025274
3.62287 1.005467 0.4979941
3.10016 1.76456 -0.5925823
4.108222 0.6057824 1.220681
2.886027 1.946031 -0.9172831
2.492473 1.407872 -0.03670334
3.798987 1.143117 0.3615184
3.125223 1.786783 -0.5947139
4.06211 0.5878629 1.223115
3.834608 1.136716 0.335436
3.566839 0.3997166 1.05171
2.62614 1.976239 -0.9070938
2.996027 1.10199 0.4308164
2.074754 2.332458 -1.377618
2.896467 1.250134 0.1038094
2.040788 2.016828 -0.9279142
2.867859 1.391308 -0.1335919
2.976478 1.411392 -0.0830606
1.905539 2.155972 -1.063407
3.7729 1.092241 0.3268872
1.749205 2.373751 -1.525413
2.878433 1.312146 0.06450414
2.281703 2.053825 -1.020023
1.770912 2.46432 -1.59161
1.763947 2.408922 -1.55415
1.779505 2.496898 -1.609057
4.222947 1.016124 0.3149833
5.676938 -0.4598322 0.2136081
2.845616 1.002111 0.6222576
2.767699 0.9278231 0.5582775
2.472816 1.367177 -0.02795195
3.050549 0.5605887 1.251029
2.187887 1.962458 -0.841424
2.514609 1.421601 -0.03841165
2.997939 0.827575 0.8765615
2.540464 1.443842 -0.04054642
2.930036 0.4903929 1.320467
2.518983 1.640393 -0.3558811
2.917495 1.0443 0.4088912
2.513219 1.635697 -0.3544548
2.818521 1.287673 0.06963508
2.524121 1.652319 -0.3583224
2.530067 1.649864 -0.3636947
2.534802 1.802544 -0.6069276
2.500608 1.754196 -0.5895101
2.377243 2.003429 -0.8924016
2.55827 1.921351 -0.730673
3.008366 1.046708 0.4332873
2.893571 0.4751538 1.306122
3.389154 0.7515745 0.9581015
2.906106 1.194104 0.1536467
3.026124 0.4495576 1.436329
3.150883 0.6125921 0.9272478
2.934629 1.304218 0.09860846
3.169318 1.190156 0.315001
2.968012 1.473295 -0.1354139
3.680471 0.6087372 1.206306
2.670171 2.032305 -0.9329916
3.155365 1.174026 0.3157403
2.603804 2.144255 -1.142457
3.619297 -0.8058434 0.7293029
3.173777 1.176189 0.1855754
2.835366 1.356199 -0.131369
2.546 1.03597 0.5650029
3.805386 0.8150895 0.924833
2.090746 2.107642 -1.041845
3.290153 1.260818 0.1729504
2.961318 1.417749 -0.100468
3.818017 0.8127924 0.9462199
2.730268 0.5030212 1.269709
3.159757 1.160302 0.1984993
2.787303 2.005346 -0.9736753
2.862465 2.274259 -1.288126
2.48888 2.398888 -1.519446
3.076621 1.980028 -0.7517286
2.827774 2.201712 -1.236931
3.819153 0.810544 0.9393913
2.904314 2.178353 -1.063169
3.666244 1.073788 0.5598343
2.794802 2.195458 -1.244042
3.777468 1.135365 0.3591825
2.805759 2.206683 -1.247084
3.585704 1.551593 -0.2855095
1.983493 1.767047 -0.4899876
1.881167 2.08359 -1.02633
3.621441 0.9972475 0.5393482
2.853543 2.111039 -1.03215
2.910244 2.080628 -1.005534
2.953794 1.825709 -0.6951637
2.71507 2.148573 -1.222044
3.105583 1.759945 -0.5925717
2.956624 1.838089 -0.6837668
3.676109 1.340596 0.1060476
2.657978 0.9915291 0.6301939
2.948864 2.132825 -1.030449
3.500419 -0.7730576 0.7328926
3.028963 1.67388 -0.5625375
3.766745 1.209811 0.2668131
2.066132 1.684739 -0.4174922
3.479903 1.46196 -0.2585217
3.861109 1.156257 0.338448
3.756704 1.10989 0.3672569
3.595867 1.334671 -1.793492
3.836693 1.249661 0.259312
3.583773 0.7503653 -2.418775
4.25943 0.5944527 1.108117
3.719756 1.174011 0.2535285
3.124063 1.775339 -0.5959178
3.724365 1.456656 -0.1842034
3.535565 0.7366443 -2.379165
2.093615 2.092972 -1.029601
3.649581 1.41329 -0.1664217
3.134813 1.782454 -0.599368
3.343297 2.142036 -1.118172
3.791775 1.542807 -0.3637822
4.520201 0.6712921 0.9636774
4.390413 0.6270323 1.064672
3.642996 1.29415 -1.757301
3.512068 1.284471 -1.729097
4.508468 0.6664144 0.9851835
3.581046 1.319644 -1.780703
3.739039 1.184315 0.2489949
4.555997 0.6881222 0.976495
3.753008 1.657045 -0.5873273
3.573844 2.230884 -1.47889
3.669111 1.010718 -2.132841
3.886334 1.099842 0.396397
2.851252 2.032407 -1.036214
2.870981 2.05362 -1.048508
3.390361 1.593031 -0.3844347
3.267895 1.693119 -0.4902944
3.399789 1.604795 -0.3810917
3.418352 1.623192 -0.3890768
3.76178 1.488299 -0.1834839
3.110717 2.095331 -1.081543
3.576177 1.542279 -0.2802683
3.017201 1.974487 -1.011435
4.770183 0.918202 0.6270534
3.740167 1.498133 -0.3459081
3.579804 1.340656 -1.802686
3.798754 1.532665 -0.3604793
3.940001 1.343806 -0.1463997
3.671869 1.594218 -0.5611634
4.517188 0.6841933 1.007884
4.324105 0.6133671 1.033252
3.690535 1.413593 -1.878366
3.559996 1.722678 -0.8658752
4.114591 1.255774 -2.514157
3.91667 0.8261015 -2.566662
4.027285 1.313895 -0.06711584
2.188364 1.410828 -0.04818821
4.161049 1.398227 -0.08571284
2.417773 2.232817 -1.418274
2.960673 2.235463 -1.244454
4.824792 1.155697 0.269442
4.900658 1.076376 0.5954457
4.833619 0.9376304 0.6378555
4.807697 0.9296532 0.649191
2.473204 2.768018 -2.674041
2.201559 2.664249 -2.849411
4.113254 1.297903 -0.03929284
3.80931 1.95218 -1.037297
2.501957 2.836262 -2.726755
4.589979 1.247267 0.1350715
3.178573 2.17614 -1.109589
2.490136 2.845003 -2.740628
2.520353 2.916981 -2.807307
4.318954 1.380329 -0.03328203
3.624075 0.6186897 1.084487
4.748591 1.039902 0.3937759
2.483362 2.838179 -2.727986
3.996488 1.063914 -2.243972
3.98931 1.201249 -1.546835
2.278677 3.058839 -2.702379
3.583458 0.3540237 1.482666
2.293741 2.862715 -2.732717
3.96608 1.179635 -1.547354
5.856371 -0.2783466 -0.4076681
2.760323 2.558658 -2.795852
4.019462 0.9586796 -2.291289
5.66624 -0.3388938 -0.387482
2.43626 3.054614 -2.563184
2.323724 2.939478 -2.802255
4.067823 1.017332 -2.377026
4.041569 1.87987 -1.022123
2.840373 2.715059 -2.951894
4.029789 1.877523 -1.015424
4.068639 1.34377 -1.484668
5.843568 -0.1861349 -0.895035
2.715812 2.894429 -2.763303
5.722702 -0.6580842 0.2081914
5.712837 -0.2287416 0.2813998
5.733343 -0.6659328 0.2159831
5.70946 -0.2046867 0.2942324
5.724622 -0.1063266 0.3708042
5.707302 -0.1731633 0.3104213
5.751002 -0.6680263 0.2217494
5.712953 -0.4024537 0.3346457
5.695302 0.4427593 0.4819735
5.725387 0.1311928 0.4534153
5.710683 0.3174029 0.4393161
5.700048 -0.35781 0.4035709
5.698268 0.443301 0.48436
3.751291 0.6051972 1.111414
3.98024 1.370813 -1.567196
3.91857 0.6921825 0.9599023
3.956968 0.6937693 0.9746454
3.897416 0.3153782 1.559018
4.027798 1.503746 -0.2353964
4.047633 0.4968066 1.267344
4.047721 0.4930231 1.254066
4.058834 0.8532061 0.7216879
4.046244 0.8442075 0.7173562
4.05401 0.4994571 1.271577
4.06447 0.5802091 1.129477
4.062687 0.5790848 1.116509
4.056207 0.5793897 1.11939
4.107331 0.5745026 1.112537
4.113743 0.5743715 1.123385
4.092533 0.5814194 1.152833
4.168741 0.8295389 0.8004285
4.131598 0.7050728 0.9460933
4.140913 0.6203775 1.031905
4.1413 0.5386991 1.183919
4.200925 0.7849419 0.76706
4.230629 0.8061167 0.797378
4.198097 0.5580907 1.235011
4.260779 0.8193647 0.8169853
2.679305 2.813372 -2.688198
2.974643 2.151761 -2.977546
3.130454 2.342713 -3.255283
3.623512 1.060928 0.4328288
3.609142 1.6221 -0.6431034
3.685267 0.7706874 0.8631809
3.729299 1.073212 0.4010279
3.696199 1.144329 0.2957563
3.759216 1.160834 0.2780761
3.66957 1.190429 0.2116125
3.674931 1.196958 0.2173578
3.668323 0.7737935 0.848204
3.855203 1.235212 0.1134627
3.896276 1.264761 0.1120165
3.836006 1.223382 0.1117489
3.868772 1.242142 0.1195227
4.421452 0.9921328 0.4682875
3.682153 0.7726863 0.8612223
4.450105 0.9994519 0.4781572
3.649781 0.7487886 0.8715287
4.339187 1.120672 0.2520722
3.520329 1.576607 -0.3394183
3.997308 1.477802 -0.2355336
3.588994 1.629635 -0.6529613
4.358074 1.122395 0.2406867
3.289081 0.7156358 0.8737516
2.325586 0.2815568 1.567177
2.546805 0.3646991 1.490847
5.681116 -0.1258887 0.2038547
5.656179 -0.09805234 -0.01845032
2.354594 0.2579877 1.662181
2.323878 0.2838454 1.612875
3.658065 0.762505 0.8400036
2.342046 0.279371 1.757404
5.676968 -0.1260985 0.2047923
2.860941 0.35887 1.52446
2.482922 0.2906615 1.585666
2.915701 0.3795129 1.522507
2.920467 0.3781426 1.48925
5.712447 0.5697194 0.2729882
2.992394 0.330133 1.512583
5.662066 0.2136568 0.2016803
2.479437 0.2962389 1.617994
2.624796 0.1891308 1.616886
5.706642 -0.1884431 0.2322624
5.676042 -0.5061748 0.06205804
5.693964 0.7190551 0.3449045
4.186306 0.7802979 0.777793
2.814209 0.3481539 1.330446
2.346965 0.2655496 1.556061
2.920089 0.5826784 1.056224
4.031843 1.386698 -0.1671651
3.594439 1.628828 -0.6537247
4.630012 1.062719 0.3650338
3.628638 1.657124 -0.6616412
4.446219 1.225526 0.0555359
4.410776 1.220468 0.05114241
4.919579 1.114127 0.3807082
4.506677 1.183457 0.2005685
3.610108 1.612647 -0.6400577
4.662141 1.06645 0.308241
3.991637 1.476485 -0.234338
3.882744 1.647915 -0.4578964
4.065384 1.523196 -0.2889256
3.310996 2.010827 -1.134264
3.595069 1.884086 -1.086695
5.611855 0.04694155 -0.865093
5.692213 0.04798864 -0.8785076
3.919637 1.883449 -1.111314
4.018109 1.402187 -1.595049
3.939156 1.909741 -1.119589
3.929424 1.878152 -1.114254
5.612039 0.3776051 -0.6538383
5.68725 0.382419 -0.667374
5.460601 0.3082703 -1.247224
5.646703 0.7605771 -0.4169813
5.561341 0.7824592 -1.108852
3.492501 2.023868 -1.418725
5.598741 0.6526409 -1.083979
5.640347 1.079756 -0.1864593
5.650011 1.147276 -0.2338035
5.484923 0.7673811 -1.101928
5.609819 0.6544474 -1.082377
5.564468 0.9772884 -0.8682771
5.536446 0.7638935 -1.388939
5.477821 1.116823 -1.361495
5.618206 1.140696 -0.3072233
5.66284 1.150949 -0.2291304
5.522166 1.063207 -0.7893615
5.572488 0.780567 -1.589905
5.645261 1.102512 -0.8104302
5.642385 1.131684 -0.2425804
5.66776 1.46789 -1.035813
5.543346 0.8332615 -2.175252
5.539799 0.5207768 -0.9375443
4.147818 1.074376 0.3670988
4.195327 0.622529 1.028328
4.309153 0.6119856 1.069551
4.313358 0.6167429 1.073576
4.368069 1.143647 0.2374859
4.361865 0.9315144 0.4569254
4.363938 1.078491 0.3431805
4.278241 0.6522236 0.9331725
4.334958 0.9659976 0.4748734
4.324766 1.02917 0.3666415
4.187535 0.6193264 1.033544
4.309858 1.056606 0.37147
4.397433 0.9665098 0.4744636
4.473994 0.6963547 0.8841024
4.506882 0.7016441 0.8983269
4.394934 0.9655411 0.4613571
4.24238 0.625425 0.9254261
4.434833 0.6135014 0.8978853
4.49985 0.7025374 0.9032724
4.671401 -0.08477384 2.034733
4.68377 -0.2859084 1.889364
4.544158 0.6308769 1.05478
4.495369 0.806075 0.7962293
4.714942 0.9066509 0.5748364
5.197529 -1.074404 1.363816
4.638989 0.9291044 0.5569516
4.646983 0.9300587 0.5667171
4.598534 0.9820667 0.4794701
5.224755 -1.432009 1.1636
4.655338 1.066335 0.3064314
5.21239 -1.059648 1.36468
4.824662 0.7190785 0.7798334
5.551436 0.8367655 -2.161595
4.843775 0.7082259 0.8915474
5.494631 0.5163038 -1.73158
5.580614 -1.53262 0.9801503
5.509331 0.3128967 -1.870797
5.585473 -0.4168932 -1.162635
5.523205 0.5273279 -1.730709
5.560458 0.3173907 -1.264264
5.546476 0.1408026 -1.447738
5.630566 -0.1774936 -0.9399199
5.476331 0.2395883 -1.904627
5.576044 -0.1553395 -1.576714
5.750279 -1.428216 0.8107842
5.551544 0.3214956 -1.209406
5.512178 0.8423821 -2.159202
5.486079 0.5959597 -1.980207
5.560338 0.3171362 -1.274392
5.559618 0.8292841 -2.464204
5.491082 0.3390985 -1.850899
5.514701 0.8296182 -2.154567
5.677669 -0.3001245 -0.4590676
5.619699 -0.1667053 -0.9413377
5.598566 0.04405786 -0.8609152
5.671846 -0.4701486 -0.3057403
5.590496 -0.1814215 -0.9452593
5.798836 -1.420066 1.069936
5.601257 0.04175067 -0.8669245
5.764027 -0.7545629 0.07503246
5.495062 0.331964 -1.853039
5.637037 0.1375394 -0.4142938
5.714599 -0.4199472 0.3453339
5.708431 -0.2951777 0.1811434
5.767141 -1.2567 1.138752
5.712294 -0.2962123 0.182447
5.536171 0.6445193 -1.061411
5.690185 -0.5090739 -0.0256365
5.694025 -0.7399067 0.06883053
5.619075 0.3819046 -0.6518406
5.580076 0.1436575 -1.446994
5.59279 0.05034823 -0.8677581
5.497627 1.229648 -1.895601
5.685116 -0.1228951 0.214533
5.833979 -0.9884976 1.32119
5.679942 0.06752619 0.1332754
5.417006 1.192015 -1.862877
5.71892 -0.2321833 1.098557
5.717211 0.0277811 0.7260244
5.826448 -1.002801 1.321163
5.563567 1.387066 -1.12869
5.561041 1.139019 -1.374761
5.551043 1.143147 -1.357325
5.411064 1.133572 -1.969295
5.715113 -0.3156103 0.741339
5.652932 0.4535006 -0.01029623
5.75395 -0.05773059 0.2821351
5.564304 1.384237 -1.12545
5.604471 1.365113 -0.6312427
5.714418 -0.03456664 0.2856078
5.731777 0.3006203 0.4891956
5.734007 -0.4147963 1.052149
5.657421 1.157471 -0.7657029
5.732567 0.01799365 1.080907
5.50863 1.125204 -1.34852
5.705496 -0.1256801 0.6855543
5.704783 0.1306577 0.4491816
5.654549 0.3076389 -0.09346245
5.713038 0.1693597 0.9266587
5.587247 1.733266 -0.7688406
5.597752 0.2501522 -0.6533353
5.663176 0.5703794 -0.01388175
5.554463 0.2602554 -0.9323677
5.576503 0.3854075 -0.5086586
5.601385 0.40388 -0.5156714
3.643832 1.265326 -1.715067
3.637432 1.261836 -1.70989
5.622816 0.8227051 -0.1498121
3.659851 1.089407 -2.290295
4.692491 1.658962 -0.7669101
5.755024 1.038327 -0.2508138
3.728875 1.273618 -1.728571
3.727202 1.271489 -1.727092
5.704492 -0.4653652 0.1337255
5.535028 0.5228856 -0.9304492
5.699826 -0.4704908 0.1327202
5.612342 0.2667227 -0.594012
5.697146 -0.5005804 0.1847217
5.665322 -0.4253551 0.07650517
5.683568 -0.251732 0.1876205
5.673521 -0.3711903 0.1738074
5.723926 -0.2892594 0.1804739
5.583938 0.1963569 -0.7460262
5.684577 -0.4678774 0.1289967
5.594683 0.6409382 -0.6755606
5.623292 0.1439386 -0.4208263
3.781404 0.6111735 1.131856
2.632341 0.1752173 1.610514
2.445084 -0.9550953 2.063513
2.443644 -0.9051068 1.938697
2.434301 -1.026033 2.017339
2.476277 -0.3114911 2.321488
2.477867 -0.2469378 2.354956
5.177802 0.8118787 0.6835033
5.684901 -0.02543982 0.2718269
5.714773 -0.3736605 0.3673553
5.747775 -0.5783821 0.5609404
5.710334 0.5681052 0.5703348
4.676653 -1.329517 1.244481
4.686602 -1.341981 1.246814
5.695615 0.03089783 0.7161902
4.773613 -1.101881 1.825308
4.628476 -1.12428 1.395634
4.712617 -1.169392 1.489098
5.745534 0.6245797 0.9536425
5.713492 -0.1189864 0.9210962
4.50295 -0.2199176 2.181293
4.607179 -0.09294266 1.9769
5.736201 0.6370867 0.9154725
4.010304 1.380704 -1.593536
3.889503 1.878418 -1.105402
3.899025 1.830862 -1.092467
3.905684 1.801577 -1.08551
5.675617 0.9559034 -0.4992555
5.579221 1.243201 -1.209678
4.056001 1.323814 -1.880306
5.840135 0.9865094 -0.6523613
4.04723 1.306901 -1.873082
5.774675 0.8239614 -1.00001
3.63546 1.289757 -1.72859
5.530231 1.13013 -1.392588
5.872006 1.097111 -0.5175293
4.934799 1.553421 -0.4469894
4.037843 1.258773 -1.786821
5.749111 1.225272 -0.2544287
5.710811 0.4505644 0.4830695
5.707736 0.3161572 0.4381377
5.680916 -0.3565139 0.3961297
5.719551 -0.02319571 0.486716
5.719488 0.08001532 0.4905515
5.71038 0.4544291 0.5700592
5.747509 0.1498508 0.5342503
5.715832 0.2115575 0.4931281
5.727388 0.08969358 0.4980273
5.676824 -0.3022658 0.4929805
5.687657 -0.3048751 0.4984112
5.693982 -0.307668 0.4980931
5.719587 0.5711203 0.576242
5.671299 0.2125622 0.2029089
5.576784 0.3392311 -0.8952352
5.723169 0.1414479 0.5252256
5.736988 -0.3079381 0.5159544
5.676138 0.06908783 0.1292668
5.67903 -0.303009 0.4968868
4.771476 0.5322115 1.188699
5.018377 0.6930472 0.9392751
5.497274 0.2440689 -0.6332217
5.577203 0.6311494 -0.6749195
5.556603 0.5647311 -0.7753778
5.715331 0.3347762 0.6456802
4.753759 1.661616 -0.7853246
5.698545 -0.2750762 0.310125
5.636284 0.2677642 -0.1416745
5.704755 -0.4722217 0.06760389
5.759586 0.2128891 0.7018079
5.735669 0.3388364 0.661134
5.7321 0.02345758 0.5993199
5.694905 -0.1264652 0.6807715
4.317279 0.3909738 1.360888
5.737874 0.3628809 0.6844493
4.695613 1.648959 -0.760698
5.697018 -0.1281034 0.6775585
5.548614 0.5308717 -0.9334726
5.722888 -0.3203419 0.7454381
5.653878 -0.3410201 -0.0172182
4.34274 0.6601189 0.9617345
5.699804 -0.02319728 1.851641
5.544404 1.028738 -0.8599212
5.595747 0.3225384 -0.4788827
5.631048 -0.06124103 -0.3331468
5.632609 -0.05818689 -0.3358452
5.546549 0.6068334 -0.8126392
5.634696 -0.05998387 -0.3341144
5.529901 0.870193 -0.6801588
5.669795 0.5312467 -0.5745665
5.618575 -0.00159465 -0.3784576
5.614506 0.1046269 -0.3029286
5.630975 0.432567 -0.5101103
5.597532 0.3678407 -0.2508363
5.644945 0.4633375 -0.006170621
5.626431 0.2226562 -0.3654994
5.657243 0.53966 -0.5673558
5.725183 -0.3008678 0.1873484
5.725114 -0.3183474 0.755942
5.007066 0.689157 0.9333451
5.740211 -0.4963628 0.8885344
5.609766 0.5402024 -0.3285471
5.637784 0.2961417 -0.0669402
5.717121 -0.02146428 0.2852384
4.773963 0.5286612 1.180908
5.546674 0.5285644 -0.9374369
5.706555 -0.2357929 0.1584134
5.739619 -0.6878771 0.913789
4.656241 -1.070988 1.437354
5.564165 0.5453962 -0.7732805
5.706558 -0.1149127 0.9234586
5.766222 -0.6750372 0.2297963
5.593736 0.3818524 -0.513471
5.66962 0.0686794 0.1278541
5.683192 0.2209407 0.214997
5.575153 0.544655 -0.7973672
5.705432 -0.2555451 0.1892826
5.610124 0.3041542 -0.390342
5.198578 -1.247031 1.238811
5.700228 -0.3007276 0.09673436
5.727461 0.01682126 1.0804
5.669289 -0.09032799 0.2842261
5.721119 0.4159076 1.196108
5.706371 0.7122764 0.3468495
5.679542 0.2147991 0.2056793
4.19663 -0.7663265 1.957002
5.625157 0.3038354 -0.3922891
4.694442 1.644123 -0.7595035
4.564902 1.71569 -0.768748
5.794019 -0.9091492 1.074909
5.649843 0.1563412 -0.03170259
5.550581 -1.006265 1.377209
5.711854 0.713679 0.3517345
5.604621 0.4232242 -1.039008
5.645295 0.6342304 -0.5228296
4.627959 -0.6668375 1.910022
5.645664 -0.0881082 0.2785226
5.699301 -0.2330763 0.1553623
5.706072 0.08075409 0.340046
5.623113 0.1279754 -0.4362504
5.807511 -0.7791485 1.491776
4.738191 1.364197 -0.1555292
5.742783 -0.5203945 1.652423
5.681719 -0.0511956 0.1686916
5.72366 -0.07164801 0.3007516
5.789721 -0.2549981 1.790318
5.703315 -0.01735993 0.2818995
5.644894 0.5425789 0.0439063
5.695729 -0.2811811 0.3070018
5.699282 0.1476609 0.3805223
5.70406 -0.05027697 0.3466972
5.728829 -0.1041675 0.3777254
4.337665 0.4012024 1.43384
5.713254 0.2010286 0.4896334
5.711539 -0.08307298 0.3791808
5.735038 0.02756396 0.3956819
5.714505 0.1110141 0.4436818
5.679012 0.1267002 0.4270632
5.733641 0.211596 0.4939186
5.604386 0.387526 -0.5137344
5.714141 0.4472857 0.4884874
5.724451 0.2946689 0.486296
5.719028 -0.0635168 0.4265141
4.769947 0.5343586 1.189267
5.734262 0.3089643 0.4944027
5.741307 0.5814461 0.5830787
5.707315 0.2914176 0.4777109
5.72156 0.2971088 0.4888102
5.617916 0.3057613 -0.3942889
4.99333 0.554769 1.120135
5.693574 -0.3581413 0.4028423
5.730233 0.4633119 0.5804426
4.994431 0.5574417 1.120194
5.600102 -0.0184889 -0.5185025
4.991495 0.5559987 1.119993
5.555645 0.5853791 -0.682301
5.710852 0.5246743 0.6137709
4.996715 0.5583607 1.125332
5.724188 0.0461741 0.532392
5.713241 0.3380547 0.555492
5.732029 -0.04267212 0.5296225
5.743671 -0.04600623 0.538789
5.724471 0.6743439 0.6406697
5.733769 0.5364203 0.6272072
5.709723 0.4525995 0.575798
5.023221 0.5676353 1.163311
5.678984 -0.4900517 0.4616545
4.757606 1.644728 -0.7835621
5.75007 0.2186286 0.6623909
5.735159 0.2158163 0.6889677
5.706102 -0.4882123 0.6035534
5.753085 -0.5819268 0.5669529
5.721101 0.4687476 0.7944757
5.77266 -0.5859666 0.5799575
5.556834 0.7014045 -0.8733632
4.965961 1.927771 -1.170632
5.72453 0.5092276 0.7196188
5.632741 0.6391276 -0.1816232
5.572513 0.631778 -0.6753342
5.599395 0.6348439 -0.4371876
5.638713 0.6374665 -0.06382334
5.717643 0.524667 0.6178938
5.527492 0.7233961 -0.8196783
5.654893 0.6208901 -0.00118483
5.622983 0.6333338 -0.1801138
5.667845 0.6329864 -0.4643008
5.532466 0.7110205 -0.9774358
5.526744 0.7703424 -1.101406
5.519437 0.7725031 -1.104514
5.650699 0.617803 -0.000447911
5.537891 0.776533 -1.11255
5.651592 0.6657794 0.03241557
5.660031 0.6968399 0.1392918
5.58222 0.7235603 -0.6267807
5.592792 0.6147273 -0.4922516
5.736747 0.4099613 0.7384171
4.310284 0.1485372 1.820306
4.304894 0.1504767 1.799162
5.714195 -0.3153709 0.744172
5.703496 0.168564 0.919585
5.719736 -0.5762746 0.7383492
4.307831 0.1472894 1.802588
5.713473 -0.3147533 0.7443715
4.402407 0.1352184 1.748209
4.727799 -1.079248 1.379537
5.72507 0.5776078 0.8545583
5.729218 -0.492944 0.8828568
4.431092 0.1518213 1.849857
5.722161 -0.5856668 0.8131804
5.755547 0.596 0.974083
5.752759 0.5839493 0.9633728
5.727839 -0.1197118 0.9309641
5.745926 0.6185914 0.9598114
3.813886 -0.2413674 2.276457
5.770416 0.5736908 1.016799
5.344844 0.4287823 1.301826
5.718793 -0.4902165 0.8735893
5.348375 0.426094 1.306447
5.708899 -0.6815926 0.8909419
5.346863 0.4292938 1.304876
5.681189 0.507175 1.121668
4.683966 -1.093307 1.46725
4.20449 -0.8222952 2.079767
5.360991 0.3342478 1.366561
5.74509 -0.4180281 1.054835
5.68649 0.5129237 1.112821
5.711138 0.5245031 1.124829
5.72445 -0.2911659 0.94402
5.725767 0.01827054 1.072436
5.376369 0.3361622 1.393625
4.249159 -0.8288441 2.162023
4.649513 -0.2664426 2.003877
5.733755 0.01754529 1.085091
5.381043 0.3400488 1.392859
5.752417 -0.5892183 1.074394
5.7246 0.4174496 1.195821
4.52058 -0.7741391 1.990297
4.676114 -0.2833608 1.862268
5.751742 -0.5893379 1.072495
4.476847 -0.8496564 2.227567
4.514417 -0.2276729 2.232952
5.670571 0.3160579 1.240055
4.583752 -0.7385469 1.961037
4.663747 -0.2763679 2.029689
5.539272 -1.001563 1.366306
5.759252 -0.1516957 1.284245
5.739161 0.3892959 1.248995
4.587245 -0.7263051 1.921057
4.418381 -0.2214174 2.224367
4.708668 -0.05759663 2.048496
4.723382 -0.05831348 2.093541
4.758221 -0.06005571 2.02126
4.667607 -0.08981327 2.021229
4.515498 -0.2195684 2.239679
5.756142 0.1814076 1.482624
4.949399 -0.06368856 2.025947
4.598064 -0.2388735 2.204476
5.804653 -0.780476 1.494689
5.259116 -0.06503353 2.005357
5.762093 0.06092947 1.78213
5.811232 -0.2586191 1.814183
5.752121 0.06579293 1.764253
5.62576 0.2235749 -0.3644833
5.600831 0.3974324 -0.5179027
5.751345 0.6992116 -0.9752671
5.174564 0.7836307 0.7769777
5.62517 0.3704167 -0.2559684
5.621686 0.2316078 -0.3022609
5.647989 0.3319537 -0.09661549
5.613498 0.2892205 -0.3067998
5.192475 0.8274031 0.6780285
5.159417 0.7765561 0.7695004
5.190678 0.8311991 0.6769208
5.622484 0.2295979 -0.2985228
5.639394 0.1677893 -0.2098339
5.66048 0.5493705 0.05777185
5.634196 0.1073024 -0.1626618
5.659876 0.5011407 -0.3665389
5.608901 0.4953332 -0.3578398
5.652496 0.1679117 -0.2055764
5.554992 0.3852289 -1.029484
5.634053 0.166812 -0.2078308
5.687649 0.1424467 -0.256617
5.532812 0.8714397 -0.6790535
5.563587 1.417887 -0.7719888
5.632706 0.002063581 -0.3814125
5.652923 0.5462653 0.04262468
5.578489 1.42317 -0.7718008
5.624673 0.3649348 -0.260805
5.660618 0.08803417 -0.05005231
5.615435 0.3639733 -0.2592981
5.53342 1.301627 -0.6641566
5.548057 1.31539 -0.6669205
5.61095 0.7235734 -0.3787229
5.627911 0.001062988 -0.3811087
5.671886 0.0834301 -0.04634813
5.606397 0.9974861 -0.4702193
5.534892 -1.064253 1.325317
5.655832 0.3300291 -0.0980472
5.65398 0.3014842 -0.06668068
5.622153 0.5472033 -0.1665947
5.647187 0.5343663 -0.117408
3.805539 1.288354 -1.737682
3.588355 1.110207 -2.372644
5.533844 0.764406 -1.08647
4.531527 1.639938 -0.7596701
4.539224 1.646886 -0.7628006
3.906646 1.884794 -1.114555
3.86221 1.202182 -2.323635
3.949549 1.058966 -2.40266
4.023685 1.426649 -1.596617
5.646807 0.3000612 -0.06552053
5.641115 0.4613075 -0.007494219
5.607117 1.107991 -0.3889679
5.653534 0.7882809 -0.01459203
5.627983 0.545989 0.05684445
5.636374 1.062056 -0.2245713
5.614824 1.113842 -0.3910353
5.694817 1.040871 -0.3263484
5.634484 0.6236579 -0.0414546
5.635646 1.056998 -0.2246829
5.676706 0.01189768 0.2408328
5.608406 1.393658 -0.4632695
5.622832 1.371938 -0.3524233
5.689001 -0.09745922 0.3627602
5.640196 0.6768267 -0.01749063
5.626619 0.6644923 -0.09487188
5.71317 -0.1105749 0.4955531
5.661587 0.7976537 -0.01395416
5.71457 -0.4848819 0.874682
5.683648 0.5604412 0.2667885
5.65027 0.9802196 -0.07451271
5.616217 1.399799 -0.4642071
5.687297 1.104303 -0.1867905
5.654112 0.8372585 0.05190632
5.684525 0.5606462 0.266833
5.714182 0.09458367 0.4977797
5.736668 0.01578317 1.086601
5.70045 0.903966 0.266648
5.609772 0.8747985 0.2494537
5.397668 0.8163983 -0.063136
5.645187 0.8853793 0.255406
5.657965 1.013977 0.2203741
5.738258 0.8161889 0.2113167
5.71753 0.7192667 0.3515018
5.682055 0.8938734 0.2609116
5.746809 0.1953231 0.690199
5.836953 -1.011711 1.336186
5.730178 0.6511674 0.7544287
5.738783 -0.5177614 1.647586
5.589642 0.7659884 -0.5600826
5.63944 0.6810092 -0.08937179
5.689063 0.7362271 0.07122277
5.571531 0.8754514 -0.9328959
5.533359 0.8574975 -0.9117966
5.545218 0.9401763 -0.9460328
5.642181 0.97673 -0.07416338
5.609412 0.9447476 -0.5133788
5.629322 0.06548496 -0.2636496
5.726984 0.8512169 -0.005062932
5.622416 1.116301 -0.3954506
5.618107 0.1396269 -0.3542764
5.586486 0.07271004 -0.6548365
5.617757 0.292806 -0.3049405
5.617792 0.3656867 -0.2586102
5.672585 0.2966642 -0.6881046
5.583529 0.2535924 -0.6585948
5.659204 0.5658854 -0.02034883
5.615864 1.373533 -0.3367127
5.630739 1.289989 -0.1937834
5.543448 1.257447 -1.713457
5.553218 1.260421 -1.722153
5.587067 1.309695 -0.8815461
5.550297 1.261876 -1.717258
5.571627 1.381499 -1.126952
5.568744 1.394365 -1.125163
5.460281 1.854131 -1.20266
5.429788 1.846971 -1.199842
5.587631 1.738197 -1.006265
5.578254 1.728276 -1.000031
5.615087 2.062174 -1.293545
4.674306 1.646094 -0.7691398
4.954204 1.583407 -0.4467124
4.052114 2.056095 -1.19239
4.800623 1.621052 -0.7640548
5.507162 0.8214459 -1.552192
4.016886 1.27957 -1.746539
4.156454 1.885714 -1.138017
3.758048 1.377005 -1.606764
4.383351 1.87929 -1.11439
5.633162 1.184003 -0.7910376
3.962262 1.023927 -2.402972
5.278523 1.697814 -0.6509581
5.508476 0.9438476 -1.450328
5.604672 1.021725 -0.9003065
4.920461 2.255199 -1.320888
5.028203 2.095878 -1.264968
5.556903 1.943769 -1.268587
5.036292 2.838682 -3.146773
5.493591 1.994687 -2.429925
5.066059 2.875091 -2.781825
5.110293 2.708725 -2.83944
5.501407 0.7611576 -1.60386
5.012505 2.843356 -2.773026
5.481359 0.7893878 -1.81951
5.441831 2.102744 -3.186978
5.494747 0.788766 -1.872895
5.54253 0.4026361 -1.427393
5.49849 2.118767 -3.199446
4.99293 2.273929 -1.908863
5.037891 2.859102 -2.779687
5.38027 2.003851 -2.513031
5.204358 2.779466 -2.833614
5.030591 2.851914 -2.777897
3.982947 1.285121 -1.819328
5.532668 0.4037167 -1.302417
4.024763 1.422424 -1.599409
3.899222 1.867354 -1.117869
3.87179 1.878034 -1.10499
3.536325 1.282396 -1.747739
3.546741 1.246631 -1.6772
4.037186 1.26304 -1.786559
4.002759 1.291334 -1.784894
3.868158 1.850788 -1.109771
4.780848 1.652502 -0.7783172
4.003063 1.271694 -1.772621
5.565518 0.5735835 -1.178069
3.93231 0.9982142 -2.455283
4.547027 1.643364 -0.7556147
3.940955 1.05647 -2.395514
3.983348 1.32496 -1.883267
5.582954 0.768952 -1.11544
5.534673 0.7464201 -0.9749133
3.083852 2.481817 -1.728914
4.34452 1.86873 -1.125134
3.116588 2.458713 -1.70674
3.505759 1.215007 -1.664261
4.398698 1.869348 -1.102629
3.592855 1.698857 -1.284199
4.62497 1.808306 -1.169537
3.52849 2.36642 -1.692955
3.544214 2.381411 -1.700967
3.253039 2.551255 -1.843521
3.557315 1.459958 -1.480884
3.55196 2.412686 -1.692998
5.705077 1.278169 -1.447391
5.693316 1.269858 -1.444335
5.621519 1.739732 -0.7441289
5.602446 1.701345 -0.7457002
4.927644 1.890701 -1.167256
4.960501 1.999247 -1.216703
5.555246 0.7901215 -1.82294
3.594347 1.420097 -1.573713
5.475145 0.8817203 -1.692373
5.515737 0.9144819 -1.697171
5.514968 0.7826468 -1.863971
5.512806 0.8340138 -1.832109
5.515523 1.012089 -1.780774
5.617146 1.357679 -1.223342
4.95672 1.258979 -1.831933
3.545931 1.396358 -1.541703
3.560117 2.217121 -1.437974
3.921529 1.869217 -1.118587
3.923376 1.944898 -1.142856
5.562621 0.7590762 -1.109855
5.519177 0.8435453 -0.9564601
4.769082 1.650107 -0.7851698
3.873258 1.437876 -2.046263
3.877006 1.504843 -2.112382
5.532792 0.5802881 -1.723988
5.563228 0.7510736 -1.397419
5.604183 1.161544 -0.7957523
5.592476 1.093136 -0.7692112
5.647359 1.33486 -0.5597719
5.647151 1.329857 -0.5582641
4.373487 1.782238 -1.098497
5.513324 0.6641962 -1.731469
5.5482 0.7499347 -1.609881
4.375578 1.906778 -1.131765
5.626774 1.423022 -0.774943
5.304902 1.679159 -0.6468582
5.518337 0.7838437 -1.865713
5.514517 0.8945071 -1.708882
5.602711 1.368229 -1.123148
5.305215 1.705863 -0.7992253
5.601674 1.261352 -1.278891
5.614267 1.371482 -1.12747
5.608516 1.374838 -1.125069
5.35032 1.232775 -1.820679
5.643271 1.720937 -0.7433468
5.542121 1.214642 -1.685238
5.56022 1.225698 -1.700641
5.624818 1.697828 -0.9875408
5.292854 1.28798 -1.988423
5.406341 1.212025 -1.872462
5.620468 1.603123 -1.048875
5.624939 1.699516 -0.9904886
5.625732 1.293501 -1.933695
5.557856 1.054121 -2.258444
5.593436 1.414891 -1.609924
5.543472 1.117836 -2.044767
5.618592 1.624672 -1.439546
5.55238 1.881282 -1.223838
5.559522 1.248376 -2.198888
5.57815 1.252487 -2.028541
5.586874 1.883762 -1.23632
5.552795 1.390142 -2.170158
5.59048 1.883578 -1.237247
5.523152 1.368839 -2.129727
5.54838 1.388169 -2.153295
5.573543 1.407989 -2.17995
5.619434 2.136934 -3.216381
5.15085 2.41281 -4.159303
5.029452 2.101227 -3.728506
4.040967 1.273799 -1.776722
3.951161 1.148817 -2.283513
4.695954 1.662894 -0.7687327
3.962818 1.072038 -2.400439
3.950008 1.168375 -2.30188
4.698267 1.64373 -0.7633982
4.703092 1.637058 -0.7604607
3.951549 1.187489 -2.323502
3.950255 1.158838 -2.287156
3.994373 1.436724 -2.01718
4.698198 1.664546 -0.7678939
3.553704 1.460049 -1.472656
3.998541 1.296427 -1.833433
5.534365 0.7463027 -1.621035
5.526507 0.744271 -1.61559
4.192129 1.901432 -1.140361
5.525684 0.6567643 -1.775949
5.546975 0.8425971 -1.477722
4.429583 1.617267 -0.7631584
5.533405 0.951065 -1.458376
5.525377 0.6940502 -1.718905
4.581623 1.352906 -1.681588
5.546869 0.8292383 -1.566592
5.552398 0.8281542 -1.56964
5.567497 0.8999262 -1.366719
5.537938 0.7307367 -1.775348
4.370311 1.90397 -1.131165
5.518183 1.106367 -1.358151
4.363898 1.899787 -1.127873
5.513733 0.7103397 -1.916296
3.964687 1.281585 -1.826355
5.523397 0.7842237 -1.871739
5.583131 1.245518 -1.280066
5.574332 1.123943 -1.358288
4.627557 1.908434 -1.144399
5.531924 0.9244188 -1.698713
5.606917 1.371732 -1.128348
4.633877 1.904817 -1.132893
5.524384 0.9111488 -1.702455
4.208463 1.246095 0.03040922
5.597173 1.560401 -1.302326
5.597162 1.687428 -1.198221
3.989065 1.401032 -1.583189
5.387622 1.340693 -1.750815
5.56277 1.219912 -1.833663
5.522376 0.797459 -2.32741
5.606592 1.608435 -1.439402
3.959651 1.74849 -0.8747654
5.533173 0.8017626 -2.333377
5.557623 0.8856387 -2.357408
5.561348 1.880263 -1.234808
3.557357 2.100155 -1.415469
5.542133 1.218104 -1.69206
5.53107 0.8003253 -2.332297
3.548565 1.952633 -1.249582
5.610049 1.489935 -1.527694
5.354681 1.32722 -2.038054
5.534662 0.7922978 -2.465781
3.989602 1.362537 -1.931821
3.561025 2.107939 -1.422732
5.385933 1.339701 -2.055799
5.572744 1.164192 -2.028142
5.350537 1.321794 -2.038501
3.598131 2.146388 -1.614938
3.538377 1.327294 -1.775943
5.547298 1.120193 -2.048486
3.986324 1.379607 -1.978263
5.400534 1.34744 -2.065346
3.58448 1.667094 -1.277537
3.5241 1.6627 -1.795238
5.225179 2.128158 -3.788647
5.218876 1.933266 -3.45994
5.237378 1.957395 -3.495705
5.264287 1.986675 -3.536148
5.463371 2.303938 -3.959731
5.162405 2.472619 -3.601875
3.531854 1.280202 -1.742888
5.127672 2.393821 -4.101615
5.024502 2.219064 -3.758928
5.142185 2.52856 -3.577446
3.888423 1.876697 -1.11026
5.39515 2.252659 -4.024961
5.490017 1.934889 -4.438756
5.534823 1.979626 -4.524282
5.128333 2.368945 -3.967526
5.611875 1.397552 -0.9681701
5.512507 0.7774707 -1.867155
5.535787 0.9621269 -1.698974
4.625448 1.90147 -1.135584
5.597657 1.296657 -1.177617
5.597785 1.29638 -1.100133
5.529746 0.9581 -1.698003
5.583915 1.129069 -1.360555
5.605803 1.301493 -1.181863
5.590042 1.262088 -1.276738
5.606416 1.303231 -1.182836
5.579493 1.253307 -1.273226
5.540544 0.968995 -1.698205
5.597539 1.374214 -1.123967
5.532941 1.015478 -1.785182
5.525166 0.8539385 -2.141723
5.601017 1.612154 -0.8975119
5.557298 0.8599247 -2.165994
5.602338 1.596153 -0.9772614
5.623811 1.601749 -1.056214
4.912354 1.90169 -1.156775
4.895157 1.897267 -1.162858
5.53706 0.8491332 -2.152049
5.617332 1.689071 -0.9928876
5.359328 1.238916 -1.850791
5.61818 1.601571 -1.055863
5.387512 1.341674 -1.750413
4.970429 1.900722 -1.174433
3.263751 2.612364 -1.883721
5.62588 1.605173 -1.055076
5.533013 1.215319 -1.902273
5.542554 1.15151 -2.01593
5.569315 1.233482 -1.703015
5.540287 1.1198 -2.047199
5.534833 1.108962 -2.045647
5.580424 1.242948 -1.911555
5.404589 1.328898 -1.763959
5.548463 1.225815 -1.908584
5.545615 1.100219 -2.236565
5.61056 1.625596 -1.433477
5.181997 2.182634 -3.9176
5.16995 2.18349 -3.910466
5.14702 2.212017 -3.926835
5.188591 2.215702 -3.959149
5.010072 2.203314 -3.865299
2.987153 2.250472 -3.260416
5.615456 1.080112 -2.263746
2.800161 2.934813 -2.938088
5.642582 0.849502 -2.196417
2.805503 2.794111 -3.006762
2.886684 2.641738 -3.060219
5.552341 1.35462 -1.592956
5.33354 1.264226 -1.934192
5.608041 0.8367409 -2.186928
2.925307 2.787029 -2.960283
2.811574 3.134375 -3.085167
5.614974 1.138568 -2.075309
5.51774 0.7888511 -2.45234
2.966629 3.130137 -2.798641
2.889508 2.706681 -3.119474
5.35078 1.268527 -1.93521
5.497442 1.043342 -2.222199
5.605848 1.693101 -1.200323
3.542363 2.657332 -2.962605
4.387032 1.377933 -0.07990547
5.510104 1.143266 -2.004209
5.542743 1.051755 -2.246865
3.129262 3.005596 -2.666665
3.145911 2.480001 -3.287923
5.444391 1.298619 -1.968286
5.545775 1.223111 -1.906142
2.975637 3.216831 -2.864847
3.392217 2.638178 -1.975078
3.606153 2.565121 -1.855584
4.167246 1.6497 -0.7311876
5.502155 0.5901445 -1.991938
2.695246 2.834387 -3.117353
4.79014 1.887136 -1.155511
4.848598 1.915951 -1.153836
2.701627 2.755852 -3.054196
2.727636 2.87326 -2.917425
4.167148 1.649852 -0.7344483
5.508313 1.328635 -1.117496
5.389143 1.17877 -1.854576
5.614141 1.545483 -0.9393395
3.027721 2.430705 -3.461565
5.568633 0.9708012 -1.704892
3.537778 1.485707 -1.416362
2.915472 2.801423 -2.974408
3.15689 2.53277 -3.342503
5.624874 1.604417 -1.055058
5.61181 1.540714 -0.943247
2.927541 2.796356 -2.964633
3.056999 2.732844 -3.355083
3.089034 2.525439 -3.010923
5.514684 0.8191951 -2.156514
2.873966 2.727954 -3.143523
5.605252 1.593195 -1.04989
3.520039 1.662479 -1.801022
4.560854 1.664481 -0.754935
3.516544 1.65621 -1.800886
4.441505 1.74772 -0.8604236
4.616771 1.754619 -0.919256
4.605388 1.744758 -0.9184055
4.332785 1.89865 -1.132584
4.497842 1.894336 -1.110067
3.269492 2.536942 -1.831103
3.671408 2.261363 -1.657606
3.523335 1.266291 -1.726903
3.583743 2.458817 -1.746777
4.164296 1.650389 -0.7343621
5.528448 0.5776262 -1.716168
3.492563 2.540076 -1.858726
3.683613 2.500558 -1.767458
3.539273 1.287425 -1.754052
4.876705 1.943813 -1.16282
6.016883 1.799453 -1.092132
3.583081 2.465487 -1.741119
3.408362 2.62562 -1.967884
3.559196 2.672618 -2.064909
3.595902 2.56454 -1.850803
5.014763 1.895818 -1.17996
5.623773 1.693898 -0.9878651
3.029809 2.376127 -3.388925
3.023033 2.340361 -3.337142
3.557793 2.656398 -2.057453
2.677622 3.159533 -2.886555
3.113335 2.587438 -3.064764
5.623409 1.160051 -2.059074
3.042219 2.693151 -3.269553
3.029588 2.805866 -3.132024
3.377699 2.686842 -3.157307
3.027755 3.112887 -2.783609
3.027605 3.253785 -2.998328
5.518229 1.961172 -2.671941
3.53984 2.664914 -2.975507
3.43914 2.65622 -3.228797
5.585329 1.82895 -2.634762
3.598684 3.073334 -3.670006
3.569981 1.98065 -1.258526
4.036061 1.293738 -1.753627
3.998272 1.409819 -1.587558
4.562226 1.62438 -0.5368176
3.948748 1.268817 -1.80893
4.077997 1.275833 -1.803413
4.546868 1.618037 -0.5374631
3.779708 1.745589 -1.093273
4.003443 1.29972 -1.844595
4.480146 1.650416 -0.7562262
4.5118 1.686692 -0.7806115
3.954183 1.272143 -1.811186
3.993763 1.36345 -1.941291
3.551495 2.202673 -1.446321
3.57295 2.24044 -1.448487
3.570431 2.23725 -1.446716
3.569933 2.239921 -1.446278
3.564649 2.233517 -1.446848
3.122248 2.510677 -1.733806
4.760697 1.736334 -0.8823654
3.691403 2.518216 -1.775543
5.504144 0.5262203 -1.89162
4.497278 1.238707 0.009355127
5.521173 0.7869685 -1.806142
3.637032 2.420418 -1.731514
3.487431 2.587179 -1.885429
3.488459 1.251343 -1.701503
3.406106 2.582742 -1.940444
5.505124 0.7093623 -1.918122
3.261759 2.544206 -1.839965
3.393076 2.572188 -1.943694
5.521475 0.7148649 -2.219322
3.484954 1.254178 -1.707007
5.526036 0.7114009 -2.219168
4.573239 1.057752 0.2500106
5.468519 0.5950067 -2.369165
5.448829 0.7970371 -2.331909
3.472131 1.325065 -1.85631
2.813957 3.082105 -3.039172
2.885076 2.701066 -3.117706
3.164173 3.115388 -2.731718
3.227472 2.727652 -3.211737
3.037856 2.845659 -3.279496
5.551043 1.874875 -1.225008
3.17471 3.55135 -3.002903
3.048168 3.229084 -2.980943
3.560311 2.756927 -3.059183
3.535586 2.702674 -3.340668
3.537186 3.12076 -2.742365
3.54508 3.163895 -2.767893
5.552145 1.390886 -2.164683
5.580676 1.831729 -2.632779
5.578639 1.825835 -2.629403
3.527746 1.442216 -1.536775
4.571954 1.265341 0.04409832
4.115804 1.618465 -0.7426826
5.548998 0.1186006 -0.956188
5.604378 0.1123326 -0.9653302
4.573621 1.219748 0.08374725
3.861347 1.66961 -0.7161035
5.590471 0.2374562 -0.9539882
5.601306 0.203955 -0.8942212
5.59837 0.2154672 -0.8861145
5.541522 0.550606 -0.5424343
3.727335 1.770966 -2.017986
3.472737 1.576917 -1.659633
5.545211 0.3606335 -1.118605
5.571329 0.3804934 -0.5239223
5.599301 0.3813809 -0.5202751
5.324791 0.7373264 -1.093682
4.680242 1.162133 0.1516086
5.459404 0.8217471 -2.167584
3.484595 1.3101 -1.823307
3.477275 1.325889 -1.836186
5.447047 2.315213 -2.467712
3.037144 2.816911 -3.263595
3.11876 2.636118 -3.25842
3.051001 2.719553 -3.325623
5.600146 1.252953 -2.219364
2.897339 3.097835 -2.741212
2.891887 3.13457 -2.776629
3.536056 2.654596 -2.987375
2.899989 3.156912 -2.78607
3.029816 3.024727 -3.264606
2.889307 3.042967 -2.722384
3.316388 2.645089 -3.117191
3.395863 2.786221 -3.248383
3.423373 2.678084 -3.252635
3.025629 3.065247 -2.862781
3.585982 2.840487 -3.314846
3.378777 2.530825 -3.196254
3.493311 2.345431 -3.393362
3.522233 2.658961 -3.290121
3.49816 2.634271 -3.130858
3.524947 2.675847 -3.300627
3.54215 3.149613 -2.772119
5.57884 1.831973 -2.627047
3.520167 3.095439 -2.770584
3.518927 2.679761 -3.318975
3.557218 3.204098 -2.853121
3.471334 3.274861 -4.72903
3.683948 3.32637 -4.714922
5.528143 0.8107835 -0.3136874
5.630907 0.5007161 -0.5657006
5.548058 0.5065348 -1.160996
5.570886 0.3999383 -1.436683
5.58746 0.5036699 -0.5682125
5.576751 0.8181291 -0.3019445
5.627621 0.697787 -0.5927344
5.608644 0.6045577 -0.7049221
5.565066 0.6877589 -0.6005945
5.660097 0.8406482 -0.2760065
5.473958 0.8163146 -0.7355115
5.650694 0.8128715 -0.586414
5.563223 0.627489 -1.077923
5.536463 0.8000125 -0.5937277
5.58221 0.7929844 -0.8331884
5.742671 0.5694357 -1.66361
5.520583 0.4932072 -1.765938
5.606394 0.7766479 -0.9907273
5.64705 0.8095231 -0.5831512
5.585025 0.7777585 -1.107912
5.679088 0.8096638 -0.5798461
5.685629 0.8121267 -0.5721805
5.49524 0.5707676 -1.709545
5.553918 0.5523154 -1.732509
5.670511 0.890863 -0.6906184
3.480148 1.60649 -1.774297
5.54772 0.7495023 -1.390857
5.749527 0.827282 -0.5667707
5.58265 0.7517228 -1.119102
5.583986 1.104187 -0.2487777
5.560499 0.7473462 -1.617641
5.561121 0.8624046 -0.9341968
2.179601 0.3014196 1.42848
5.565033 -0.1518146 -0.9918455
5.627886 0.4108978 -0.4891741
5.643531 -0.5381542 -0.6857001
5.631189 -0.4913505 -0.6089656
5.638326 -0.4884011 -0.5985736
2.618757 0.3729415 1.401214
2.659896 0.412118 1.351391
5.654062 0.646565 0.02097544
4.201544 0.7798899 0.7739911
4.731164 0.9018508 0.5537619
5.658985 0.6475608 0.03068925
4.127025 0.6885015 0.902349
5.671331 0.7936909 0.2093808
4.049474 0.5752394 1.110763
4.736104 0.7419715 0.8066055
4.462831 0.6930322 0.9610683
4.121002 0.5420342 1.158313
5.642479 1.131833 -0.5589097
5.525484 0.8333588 -1.474005
5.510536 0.7583704 -1.593021
5.509324 0.7457484 -1.602977
5.498513 1.101885 -1.348094
5.601191 1.159527 -1.12312
5.569075 1.123976 -1.356234
5.587658 1.122396 -1.360192
5.751044 1.171784 -0.8014313
5.701351 1.188402 -2.08568
5.20928 1.728842 -1.175016
5.517023 1.121899 -1.368551
5.631594 1.130895 -1.364416
5.580543 2.114955 -3.182199
5.459135 0.8287533 -2.158351
3.452523 1.363662 -1.901017
4.580578 1.062734 0.247148
4.377563 1.368431 -2.036288
5.471655 0.7075478 -2.218211
5.49814 0.5686216 -1.722391
3.473807 1.326901 -1.858536
5.493628 1.997889 -2.907112
5.489733 0.5864804 -2.297563
4.325551 1.242219 0.03001967
5.502055 0.7905991 -1.810954
5.480966 2.054418 -2.521114
5.467023 0.5935639 -2.374935
5.063291 1.871109 -3.393771
5.184856 0.821649 0.6695129
5.097921 1.888222 -3.410722
5.466296 2.269752 -2.376834
5.453796 0.7827282 -2.452346
3.476404 1.311361 -1.824411
5.486949 2.005389 -2.902082
5.50384 0.3359997 -1.876366
4.764624 2.971616 -2.726116
5.582985 -0.1882221 -1.081319
5.544428 0.1533125 -1.444037
5.525683 0.1347832 -1.458725
5.555558 0.1490424 -1.441897
5.474686 0.3342752 -1.946904
5.635364 -0.3117342 -0.4902096
5.548474 0.3069245 -1.287943
5.45245 0.7557939 -2.468137
5.490321 0.5899884 -1.999692
3.458364 1.291702 -1.820061
5.572082 0.1181736 -0.9617269
5.640481 -0.3065687 -0.479801
5.494954 0.5952284 -1.987681
5.641095 -0.2333474 -0.436469
5.458981 0.8535132 -2.148393
5.522458 0.7844272 -1.808655
5.637623 0.5428931 -0.5383506
5.495612 0.7698997 -1.806857
5.654177 1.156072 -2.088725
5.689027 1.151082 -1.372648
5.741859 1.067072 -0.6507391
5.701944 1.171652 -2.086756
4.399637 0.7944128 0.7268796
3.862031 0.6966617 0.9390595
3.940373 0.6738328 0.9434286
3.85992 0.6967511 0.9431223
4.303384 0.7635079 0.7669819
4.402737 0.7997006 0.7567953
1.746027 0.3031513 1.590412
3.630213 0.5609694 0.956967
3.607149 0.5750204 1.099045
4.131299 0.6877027 0.9861726
3.492021 0.5987799 1.063879
3.527274 0.5811589 1.154921
3.697488 0.5747288 1.110732
5.71385 -0.85219 0.03982156
3.808696 0.5586042 1.12575
3.587919 0.3590506 1.470778
2.837794 0.3400075 1.545511
3.695606 0.6195718 0.9969168
4.731927 0.8482232 0.6609066
3.708172 0.5467603 1.145573
4.198946 0.6184241 0.9944017
4.208306 0.629881 1.023144
5.018774 0.8007873 0.9566748
5.691602 0.448948 0.4721175
4.128466 0.5666038 1.070615
3.881131 0.5696604 1.096156
3.987551 0.5836281 1.083736
4.581044 0.634547 0.8185056
4.228745 0.5996714 1.047382
4.589429 0.6605021 1.11661
1.411364 0.2896954 1.503389
3.923162 0.5680344 1.184379
4.103004 0.5699893 1.108097
4.339958 0.5831597 1.071367
4.366829 0.6085258 1.228252
4.553518 0.6700356 0.945295
1.980495 0.3802229 1.389711
5.554684 0.3056581 -1.28711
5.580931 0.03506541 -0.87459
5.531502 0.3234262 -1.27144
5.604622 -0.04257442 -0.7224224
3.459451 1.360935 -1.910726
5.512702 0.4985944 -1.758276
5.553201 0.5098412 -1.166961
5.510982 0.4901544 -1.1787
5.497701 2.019225 -2.72047
5.57626 0.3192865 -1.065515
5.480619 2.00668 -2.723403
5.496119 0.9222159 -1.708403
5.455134 0.9538807 -2.276697
5.034173 2.349735 -3.178199
3.452157 1.363835 -1.901016
5.590603 0.5798025 -0.5373587
5.586732 0.4155061 -0.5242482
5.293953 1.239664 -1.897867
4.718174 2.954369 -2.680854
5.640038 0.3324105 -0.1083063
3.450616 1.361187 -1.903494
3.456953 1.290335 -1.820365
5.555009 0.7898854 -0.9835389
5.517505 1.130541 -1.363908
3.452869 1.373433 -1.913176
5.631432 0.3267999 -0.1084334
5.471612 1.088339 -2.225256
5.043295 1.86781 -3.386523
5.652062 0.4562038 -0.01212379
5.565976 0.8899842 -0.7065894
5.51952 1.127723 -1.363458
5.714386 0.5656447 0.5691877
5.605767 0.8378191 -0.4411708
5.002141 2.585264 -3.118299
5.587467 0.9556231 -0.449692
5.657991 0.7988551 0.1926294
5.652533 0.3002043 -0.05947892
5.451766 2.193878 -2.659216
5.611495 0.852444 -0.303999
5.655546 0.8286886 0.1987685
5.639013 0.842887 -0.2911731
3.458951 1.360579 -1.912436
5.552886 1.153114 -0.8182007
5.608113 0.8530703 -0.3590957
5.675327 1.148655 -0.8091453
5.471263 1.048857 -2.226456
5.73553 0.6512635 0.9105357
5.47192 2.170396 -2.653101
5.506034 2.122965 -3.198015
5.450478 2.104083 -3.183481
5.531584 1.669131 -2.389259
5.273189 1.31188 -2.026898
5.493632 1.845998 -2.640425
5.451387 2.103758 -3.187806
5.514155 1.835169 -2.448732
5.428686 2.169323 -2.674962
5.5591 0.3045085 -1.281451
5.514 0.8993282 -1.46759
5.594929 -0.1781843 -0.9546387
5.499353 2.012099 -2.901467
5.477234 2.053258 -2.519006
5.463485 1.858511 -2.226406
5.475014 0.9212517 -2.017629
5.510651 1.836351 -2.449962
5.506585 1.834227 -2.643567
5.475343 2.183724 -2.68355
5.471942 2.014832 -2.731063
5.477325 2.265555 -2.369236
5.509289 2.02798 -2.891305
5.504094 1.852148 -2.639445
5.51194 1.837673 -2.643474
5.482162 2.054778 -2.519552
5.474656 2.053707 -2.519895
5.482061 1.859083 -2.225247
5.488047 1.867852 -2.225123
5.363395 2.864896 -2.739982
5.587075 -0.0347627 -0.7302162
5.51173 1.833264 -2.286709
5.495263 1.953179 -2.323374
5.443709 2.313657 -2.469824
5.259832 2.413967 -1.842029
5.298275 2.678476 -2.461164
5.482199 2.014519 -2.729748
5.529254 1.665776 -2.392617
5.483254 2.056921 -2.514744
5.460498 1.874604 -2.209146
5.546644 1.673885 -2.378811
5.450197 2.320148 -2.468633
5.454891 2.166901 -2.673365
5.418084 2.458872 -1.842778
5.478694 1.987095 -2.435653
5.639503 -0.3081865 -0.4835216
5.349958 2.649803 -2.346395
5.358144 2.657794 -2.344827
5.460358 2.508571 -1.924444
5.466946 0.5916039 -2.305773
5.364886 2.703399 -2.462021
5.446773 2.316541 -2.467957
5.52051 1.969046 -2.317437
5.610786 0.2395901 -0.7229031
5.421008 2.309417 -2.465145
5.44004 2.314998 -2.463508
5.577274 0.8030051 -0.9659069
5.588383 0.5239467 -0.5710424
5.400528 2.716299 -2.451245
5.470993 1.634768 -2.041249
5.429368 1.567797 -2.016624
5.48176 1.223775 -1.910958
5.505348 0.9721587 -1.697834
5.47483 1.639846 -2.032282
5.471109 2.149705 -2.086627
5.50787 0.7497885 -1.615757
5.517667 0.7486385 -1.606138
5.279997 2.27232 -1.600356
5.262073 2.265255 -1.614347
5.272766 2.270537 -1.608711
5.501329 0.966589 -1.701924
5.434766 2.309905 -2.603282
5.397062 2.736708 -2.449182
5.507792 0.910372 -1.704858
5.5684 0.2625799 -1.170696
5.556802 0.7861376 -0.9873596
5.605131 0.8624023 -0.3071085
5.433711 1.403956 -2.09902
5.486626 1.117351 -2.037509
5.481148 0.8117172 -2.151071
5.479929 2.043791 -2.354095
5.482167 1.148915 -2.016191
5.508885 1.837339 -2.447647
5.485578 1.124036 -1.978921
5.546189 0.3676891 -0.6778969
5.56496 0.8893121 -0.7067864
5.60752 0.8485107 -0.3078496
5.657494 0.462097 -0.008782869
5.514873 1.840226 -2.448415
5.468961 0.5637875 -2.260285
5.570457 0.4188712 -0.5265616
5.444366 1.843213 -2.234611
5.459651 1.116166 -2.197787
5.645151 0.3680011 -0.6049241
5.464804 0.7072933 -2.228041
5.455431 1.002051 -2.195291
5.461726 0.9402076 -2.167837
5.49244 2.087661 -2.235625
5.498918 2.08268 -2.234874
5.539838 0.4019411 -1.429396
5.560078 0.3181276 -1.211865
5.562777 0.3787299 -1.116585
5.476194 0.9168139 -2.018982
5.493474 0.6096925 -1.989003
5.458198 0.9277391 -2.028954
5.472505 1.147975 -2.020004
5.474052 1.225184 -1.915023
5.48565 0.2366815 -1.908088
5.471767 0.9179449 -2.019977
5.488699 0.4712402 -2.000484
5.534601 0.3242791 -1.842875
5.481252 0.7159822 -1.929625
5.513193 0.3430794 -1.862076
5.511761 0.3728711 -1.905663
5.519659 0.778163 -1.851799
5.509617 0.3911481 -1.822143
5.514687 0.5792599 -1.714573
5.486431 0.8273861 -1.59269
5.508152 0.4972628 -1.766933
5.497867 0.7545329 -1.631487
5.501223 0.7649409 -1.425712
5.501026 0.8459055 -1.498204
5.493711 0.8482063 -1.504973
5.57076 0.1382802 -1.425744
5.520959 0.9700348 -1.272411
5.57001 0.1283245 -1.42717
5.548717 0.7774665 -1.113658
5.546918 0.7782216 -1.115996
5.561232 0.3712793 -1.236927
5.570948 0.3747309 -1.106519
